ply
format ascii 1.0
element vertex 307200
property float x
property float y
property float z
end_header
-0.000 -0.000 0.000
-0.000 -0.000 0.000
-0.000 -0.000 0.000
-0.000 -0.000 0.000
-0.000 -0.000 0.000
-0.000 -0.000 0.000
-0.000 -0.000 0.000
-0.000 -0.000 0.000
-0.000 -0.000 0.000
-0.000 -0.000 0.000
-0.000 -0.000 0.000
-0.000 -0.000 0.000
-0.000 -0.000 0.000
-0.000 -0.000 0.000
-0.000 -0.000 0.000
-0.000 -0.000 0.000
-0.000 -0.000 0.000
-0.000 -0.000 0.000
-0.000 -0.000 0.000
-0.000 -0.000 0.000
-0.000 -0.000 0.000
-0.000 -0.000 0.000
-0.000 -0.000 0.000
-0.000 -0.000 0.000
-0.000 -0.000 0.000
-0.000 -0.000 0.000
-0.000 -0.000 0.000
-0.000 -0.000 0.000
-0.000 -0.000 0.000
-0.000 -0.000 0.000
-0.000 -0.000 0.000
-0.000 -0.000 0.000
-0.000 -0.000 0.000
-0.000 -0.000 0.000
-0.000 -0.000 0.000
-0.000 -0.000 0.000
-0.000 -0.000 0.000
-0.000 -0.000 0.000
-0.000 -0.000 0.000
-0.000 -0.000 0.000
-0.000 -0.000 0.000
-0.000 -0.000 0.000
-0.000 -0.000 0.000
-0.000 -0.000 0.000
-0.000 -0.000 0.000
-0.000 -0.000 0.000
-0.000 -0.000 0.000
-0.000 -0.000 0.000
-0.000 -0.000 0.000
-0.000 -0.000 0.000
-0.000 -0.000 0.000
-0.000 -0.000 0.000
-0.000 -0.000 0.000
-0.000 -0.000 0.000
-0.000 -0.000 0.000
-0.000 -0.000 0.000
-0.000 -0.000 0.000
-0.000 -0.000 0.000
-0.000 -0.000 0.000
-0.000 -0.000 0.000
-0.000 -0.000 0.000
-0.000 -0.000 0.000
-0.000 -0.000 0.000
-0.000 -0.000 0.000
-0.000 -0.000 0.000
-0.000 -0.000 0.000
-0.000 -0.000 0.000
-0.000 -0.000 0.000
-0.000 -0.000 0.000
-0.000 -0.000 0.000
-0.000 -0.000 0.000
-0.000 -0.000 0.000
-0.000 -0.000 0.000
-0.000 -0.000 0.000
-0.000 -0.000 0.000
-0.000 -0.000 0.000
-0.000 -0.000 0.000
-0.000 -0.000 0.000
-0.000 -0.000 0.000
-943.916 -951.433 1459.000
-934.162 -945.564 1450.000
-921.249 -936.434 1436.000
-914.800 -933.826 1432.000
-912.189 -935.130 1434.000
-908.301 -935.130 1434.000
-904.412 -935.130 1434.000
-908.060 -942.955 1446.000
-905.390 -944.259 1448.000
-898.351 -940.999 1443.000
-884.520 -930.565 1427.000
-867.074 -916.218 1405.000
-860.192 -912.958 1400.000
-855.173 -911.654 1398.000
-848.337 -908.393 1393.000
-844.560 -908.393 1393.000
-843.197 -911.002 1397.000
-839.409 -911.002 1397.000
-835.621 -911.002 1397.000
-831.833 -911.002 1397.000
-831.602 -914.914 1403.000
-828.978 -916.218 1405.000
-823.993 -914.914 1403.000
-819.605 -914.262 1402.000
-816.385 -914.914 1403.000
-812.581 -914.914 1403.000
-809.930 -916.218 1405.000
-807.841 -918.175 1408.000
-806.307 -920.783 1412.000
-803.047 -921.435 1413.000
-800.347 -922.740 1415.000
-798.762 -925.348 1419.000
-798.276 -929.261 1425.000
-794.412 -929.261 1425.000
-788.884 -927.304 1422.000
-785.028 -927.304 1422.000
-778.425 -924.044 1417.000
-774.583 -924.044 1417.000
-770.741 -924.044 1417.000
-766.899 -924.044 1417.000
-763.057 -924.044 1417.000
-759.214 -924.044 1417.000
-755.372 -924.044 1417.000
-753.121 -926.000 1420.000
-752.964 -930.565 1427.000
-749.095 -930.565 1427.000
-747.315 -933.173 1431.000
-743.435 -933.173 1431.000
-741.105 -935.130 1434.000
-739.787 -938.390 1439.000
-739.465 -942.955 1446.000
-736.562 -944.259 1448.000
-733.647 -945.564 1450.000
-728.709 -944.259 1448.000
-723.281 -942.303 1445.000
-716.376 -938.390 1439.000
-707.523 -931.869 1429.000
-702.664 -930.565 1427.000
-698.794 -930.565 1427.000
-695.899 -931.869 1429.000
-695.414 -936.434 1436.000
-696.336 -942.955 1446.000
-694.331 -945.564 1450.000
-691.827 -947.520 1453.000
-688.834 -948.824 1455.000
-686.772 -951.433 1459.000
-683.752 -952.737 1461.000
-681.186 -954.693 1464.000
-676.292 -953.389 1462.000
-672.327 -953.389 1462.000
-669.278 -954.693 1464.000
-668.489 -959.258 1471.000
-664.500 -959.258 1471.000
-663.206 -963.171 1477.000
-660.986 -965.779 1481.000
-656.971 -965.779 1481.000
-653.837 -967.083 1483.000
-650.254 -967.735 1484.000
-646.230 -967.735 1484.000
-642.206 -967.735 1484.000
-638.182 -967.735 1484.000
-633.731 -967.083 1483.000
-628.861 -965.779 1481.000
-624.845 -965.779 1481.000
-620.829 -965.779 1481.000
-618.063 -967.735 1484.000
-613.625 -967.083 1483.000
-609.604 -967.083 1483.000
-607.625 -970.344 1488.000
-603.590 -970.344 1488.000
-598.750 -969.040 1486.000
-598.723 -975.561 1496.000
-595.461 -976.865 1498.000
-591.399 -976.865 1498.000
-586.553 -975.561 1496.000
-583.276 -976.865 1498.000
-577.667 -974.256 1494.000
-573.616 -974.256 1494.000
-571.090 -976.865 1498.000
-567.028 -976.865 1498.000
-562.967 -976.865 1498.000
-558.905 -976.865 1498.000
-554.102 -975.561 1496.000
-548.575 -972.952 1492.000
-545.260 -974.256 1494.000
-542.658 -976.865 1498.000
-537.877 -975.561 1496.000
-534.534 -976.865 1498.000
-530.472 -976.865 1498.000
-526.410 -976.865 1498.000
-522.349 -976.865 1498.000
-518.633 -977.517 1499.000
-515.255 -978.821 1501.000
-511.185 -978.821 1501.000
-507.115 -978.821 1501.000
-502.040 -976.865 1498.000
-497.313 -975.561 1496.000
-488.970 -967.083 1483.000
-484.295 -965.779 1481.000
-480.928 -967.083 1483.000
-477.228 -967.735 1484.000
-473.204 -967.735 1484.000
-470.445 -970.344 1488.000
-467.038 -971.648 1490.000
-462.997 -971.648 1490.000
-458.957 -971.648 1490.000
-454.917 -971.648 1490.000
-450.877 -971.648 1490.000
-448.036 -974.256 1494.000
-445.174 -976.865 1498.000
-441.112 -976.865 1498.000
-437.051 -976.865 1498.000
-432.989 -976.865 1498.000
-428.927 -976.865 1498.000
-425.149 -977.517 1499.000
-421.646 -978.821 1501.000
-417.576 -978.821 1501.000
-412.955 -977.517 1499.000
-407.527 -974.256 1494.000
-401.855 -970.344 1488.000
-396.751 -967.735 1484.000
-392.463 -967.083 1483.000
-388.442 -967.083 1483.000
-384.421 -967.083 1483.000
-380.400 -967.083 1483.000
-376.632 -967.735 1484.000
-372.608 -967.735 1484.000
-370.075 -971.648 1490.000
-366.526 -972.952 1492.000
-362.480 -972.952 1492.000
-357.954 -971.648 1490.000
-352.489 -967.735 1484.000
-348.230 -967.083 1483.000
-344.209 -967.083 1483.000
-340.418 -967.735 1484.000
-337.300 -970.344 1488.000
-333.266 -970.344 1488.000
-329.231 -970.344 1488.000
-325.196 -970.344 1488.000
-320.298 -967.735 1484.000
-316.274 -967.735 1484.000
-313.513 -971.648 1490.000
-309.058 -970.344 1488.000
-303.588 -965.779 1481.000
-299.572 -965.779 1481.000
-295.557 -965.779 1481.000
-291.541 -965.779 1481.000
-287.525 -965.779 1481.000
-283.509 -965.779 1481.000
-278.739 -963.171 1477.000
-273.990 -960.562 1473.000
-269.446 -958.606 1470.000
-265.099 -957.302 1468.000
-261.652 -959.258 1471.000
-258.014 -960.562 1473.000
-254.020 -960.562 1473.000
-250.026 -960.562 1473.000
-246.032 -960.562 1473.000
-241.709 -959.258 1471.000
-237.559 -958.606 1470.000
-233.573 -958.606 1470.000
-229.587 -958.606 1470.000
-224.680 -954.693 1464.000
-220.711 -954.693 1464.000
-216.297 -952.737 1461.000
-212.045 -951.433 1459.000
-207.233 -947.520 1453.000
-202.874 -945.564 1450.000
-198.667 -944.259 1448.000
-194.472 -942.955 1446.000
-190.551 -942.955 1446.000
-186.889 -944.259 1448.000
-182.710 -942.955 1446.000
-179.036 -944.259 1448.000
-175.715 -947.520 1453.000
-171.775 -947.520 1453.000
-168.066 -948.824 1455.000
-164.347 -950.128 1457.000
-160.396 -950.128 1457.000
-156.231 -948.824 1455.000
-152.285 -948.824 1455.000
-147.423 -942.955 1446.000
-143.502 -942.955 1446.000
-139.581 -942.955 1446.000
-135.848 -944.259 1448.000
-132.286 -946.868 1452.000
-128.349 -946.868 1452.000
-124.412 -946.868 1452.000
-119.977 -942.955 1446.000
-115.494 -938.390 1439.000
-111.515 -937.738 1438.000
-107.466 -936.434 1436.000
-103.572 -936.434 1436.000
-99.679 -936.434 1436.000
-95.785 -936.434 1436.000
-92.019 -937.738 1438.000
-88.427 -940.999 1443.000
-84.631 -942.303 1445.000
-80.769 -942.955 1446.000
-76.848 -942.955 1446.000
-72.877 -942.303 1445.000
-68.959 -942.303 1445.000
-64.950 -940.999 1443.000
-61.038 -940.999 1443.000
-57.046 -939.695 1441.000
-53.139 -939.695 1441.000
-49.231 -939.695 1441.000
-45.167 -936.434 1436.000
-41.158 -933.826 1432.000
-37.249 -933.173 1431.000
-33.229 -929.261 1425.000
-29.304 -927.304 1422.000
-25.323 -922.740 1415.000
-21.486 -922.740 1415.000
-17.674 -924.044 1417.000
-13.881 -927.304 1422.000
-10.074 -931.869 1429.000
-6.213 -933.826 1432.000
-2.336 -936.434 1436.000
1.561 -938.390 1439.000
5.470 -939.695 1441.000
9.377 -939.695 1441.000
13.257 -937.738 1438.000
17.025 -930.565 1427.000
20.616 -918.175 1408.000
24.208 -909.697 1395.000
27.690 -899.916 1380.000
31.249 -894.699 1372.000
34.944 -894.047 1371.000
38.661 -894.047 1371.000
41.853 -882.961 1354.000
45.189 -876.440 1344.000
47.961 -860.789 1320.000
50.486 -843.182 1293.000
53.282 -832.096 1276.000
56.608 -830.140 1273.000
58.928 -814.489 1249.000
60.917 -796.230 1221.000
63.334 -785.144 1204.000
65.492 -772.102 1184.000
67.020 -753.190 1155.000
68.694 -737.540 1131.000
71.190 -731.671 1122.000
73.306 -722.541 1108.000
0.000 -0.000 0.000
0.000 -0.000 0.000
0.000 -0.000 0.000
0.000 -0.000 0.000
0.000 -0.000 0.000
0.000 -0.000 0.000
0.000 -0.000 0.000
0.000 -0.000 0.000
0.000 -0.000 0.000
0.000 -0.000 0.000
88.596 -601.900 923.000
90.407 -597.335 916.000
92.384 -594.075 911.000
93.917 -588.206 902.000
0.000 -0.000 0.000
0.000 -0.000 0.000
0.000 -0.000 0.000
0.000 -0.000 0.000
0.000 -0.000 0.000
0.000 -0.000 0.000
0.000 -0.000 0.000
0.000 -0.000 0.000
0.000 -0.000 0.000
0.000 -0.000 0.000
0.000 -0.000 0.000
102.768 -490.389 752.000
104.946 -491.041 753.000
106.704 -489.737 751.000
108.595 -489.085 750.000
109.449 -483.868 742.000
109.958 -477.347 732.000
110.873 -472.782 725.000
112.683 -472.130 724.000
113.854 -468.869 719.000
115.160 -466.261 715.000
116.935 -465.609 714.000
118.704 -464.956 713.000
120.637 -464.956 713.000
122.399 -464.304 712.000
124.155 -463.652 711.000
125.905 -463.000 710.000
127.290 -461.044 707.000
129.025 -460.392 706.000
131.124 -461.044 707.000
133.041 -461.044 707.000
135.149 -461.696 708.000
137.456 -463.000 710.000
139.381 -463.000 710.000
141.505 -463.652 711.000
143.433 -463.652 711.000
145.361 -463.652 711.000
147.496 -464.304 712.000
149.637 -464.956 713.000
151.995 -466.261 715.000
154.364 -467.565 717.000
156.309 -467.565 717.000
158.253 -467.565 717.000
160.197 -467.565 717.000
162.141 -467.565 717.000
164.543 -468.869 719.000
166.956 -470.173 721.000
169.145 -470.825 722.000
171.339 -471.478 723.000
173.540 -472.130 724.000
175.745 -472.782 725.000
177.711 -472.782 725.000
179.677 -472.782 725.000
181.893 -473.434 726.000
184.621 -475.390 729.000
186.854 -476.042 730.000
189.351 -477.347 732.000
191.597 -477.999 733.000
193.584 -477.999 733.000
195.572 -477.999 733.000
197.829 -478.651 734.000
200.092 -479.303 735.000
202.909 -481.259 738.000
205.743 -483.216 741.000
208.033 -483.868 742.000
210.328 -484.520 743.000
212.343 -484.520 743.000
214.646 -485.172 744.000
216.954 -485.824 745.000
219.268 -486.476 746.000
220.994 -485.824 745.000
223.014 -485.824 745.000
225.337 -486.476 746.000
227.055 -485.824 745.000
229.075 -485.824 745.000
231.095 -485.824 745.000
233.115 -485.824 745.000
236.082 -487.780 748.000
238.428 -488.432 749.000
240.780 -489.085 750.000
243.461 -490.389 752.000
245.500 -490.389 752.000
248.527 -492.345 755.000
250.574 -492.345 755.000
252.956 -492.997 756.000
256.018 -494.954 759.000
258.076 -494.954 759.000
260.819 -496.258 761.000
262.883 -496.258 761.000
264.946 -496.258 761.000
267.009 -496.258 761.000
269.426 -496.910 762.000
271.849 -497.562 763.000
274.636 -498.866 765.000
277.072 -499.518 766.000
280.242 -501.475 769.000
282.694 -502.127 770.000
285.892 -504.083 773.000
288.360 -504.735 774.000
290.459 -504.735 774.000
292.180 -504.083 773.000
293.133 -502.127 770.000
294.838 -501.475 769.000
296.923 -501.475 769.000
300.175 -503.431 772.000
302.659 -504.083 773.000
305.544 -505.387 775.000
308.439 -506.692 777.000
311.745 -508.648 780.000
314.665 -509.952 782.000
317.190 -510.604 783.000
320.129 -511.909 785.000
322.258 -511.909 785.000
324.799 -512.561 786.000
328.178 -514.517 789.000
330.736 -515.169 790.000
332.878 -515.169 790.000
336.293 -517.125 793.000
339.723 -519.082 796.000
342.311 -519.734 797.000
344.472 -519.734 797.000
346.633 -519.734 797.000
347.044 -517.125 793.000
349.634 -517.778 794.000
352.230 -518.430 795.000
354.832 -519.082 796.000
357.887 -520.386 798.000
360.502 -521.038 799.000
364.030 -522.994 802.000
367.118 -524.299 804.000
369.757 -524.951 805.000
372.864 -526.255 807.000
374.588 -525.603 806.000
377.241 -526.255 807.000
380.369 -527.559 809.000
383.036 -528.211 810.000
385.707 -528.863 811.000
387.906 -528.863 811.000
390.105 -528.863 811.000
391.821 -528.211 810.000
394.017 -528.211 810.000
396.213 -528.211 810.000
398.902 -528.863 811.000
402.090 -530.168 813.000
405.289 -531.472 815.000
408.499 -532.776 817.000
411.217 -533.428 818.000
413.940 -534.080 819.000
416.669 -534.732 820.000
418.892 -534.732 820.000
422.143 -536.037 822.000
424.888 -536.689 823.000
428.676 -538.645 826.000
431.959 -539.949 828.000
435.253 -541.254 830.000
439.085 -543.210 833.000
441.874 -543.862 834.000
445.200 -545.166 836.000
449.608 -547.775 840.000
452.962 -549.079 842.000
455.245 -549.079 842.000
457.528 -549.079 842.000
460.357 -549.731 843.000
462.643 -549.731 843.000
465.480 -550.383 844.000
467.768 -550.383 844.000
471.728 -552.340 847.000
475.144 -553.644 849.000
478.570 -554.948 851.000
482.008 -556.252 853.000
484.889 -556.904 854.000
487.775 -557.556 855.000
490.666 -558.209 856.000
492.412 -557.556 855.000
495.309 -558.209 856.000
497.630 -558.209 856.000
500.535 -558.861 857.000
504.032 -560.165 859.000
506.361 -560.165 859.000
508.690 -560.165 859.000
511.019 -560.165 859.000
513.349 -560.165 859.000
516.278 -560.817 860.000
518.610 -560.817 860.000
520.942 -560.817 860.000
523.274 -560.817 860.000
526.217 -561.469 861.000
529.779 -562.773 863.000
532.736 -563.425 864.000
536.317 -564.730 866.000
539.909 -566.034 868.000
545.386 -569.294 873.000
550.891 -572.555 878.000
555.792 -575.163 882.000
560.082 -577.120 885.000
564.389 -579.076 888.000
568.073 -580.380 890.000
570.486 -580.380 890.000
572.899 -580.380 890.000
574.020 -579.076 888.000
575.129 -577.772 886.000
577.532 -577.772 886.000
579.279 -577.120 885.000
581.679 -577.120 885.000
584.079 -577.120 885.000
586.478 -577.120 885.000
588.878 -577.120 885.000
591.278 -577.120 885.000
593.007 -576.468 884.000
595.404 -576.468 884.000
598.477 -577.120 885.000
603.592 -579.728 889.000
605.321 -579.076 888.000
607.729 -579.076 888.000
610.137 -579.076 888.000
613.924 -580.380 890.000
615.645 -579.728 889.000
619.446 -581.032 891.000
621.862 -581.032 891.000
623.577 -580.380 890.000
622.474 -577.120 885.000
619.931 -572.555 878.000
617.350 -567.990 871.000
618.289 -566.686 869.000
619.931 -566.034 868.000
621.567 -565.382 867.000
623.918 -565.382 867.000
624.824 -564.078 865.000
626.445 -563.425 864.000
625.876 -560.817 860.000
627.478 -560.165 859.000
629.074 -559.513 858.000
630.664 -558.861 857.000
633.727 -559.513 858.000
634.571 -558.209 856.000
636.148 -557.556 855.000
634.732 -554.296 850.000
622.797 -541.906 831.000
621.290 -538.645 826.000
622.774 -537.993 825.000
624.254 -537.341 824.000
626.488 -537.341 824.000
628.722 -537.341 824.000
630.957 -537.341 824.000
632.422 -536.689 823.000
632.341 -534.732 820.000
631.469 -532.124 816.000
630.575 -529.516 812.000
628.101 -525.603 806.000
623.248 -519.734 797.000
623.840 -518.430 795.000
622.846 -515.821 791.000
624.201 -515.169 790.000
625.550 -514.517 789.000
626.894 -513.865 788.000
629.030 -513.865 788.000
630.366 -513.213 787.000
631.696 -512.561 786.000
