ply
format ascii 1.0
element vertex 307200
property float x
property float y
property float z
end_header
-0.000 -0.000 0.000
-0.000 -0.000 0.000
-0.000 -0.000 0.000
-0.000 -0.000 0.000
-0.000 -0.000 0.000
-0.000 -0.000 0.000
-0.000 -0.000 0.000
-0.000 -0.000 0.000
-0.000 -0.000 0.000
-0.000 -0.000 0.000
-0.000 -0.000 0.000
-0.000 -0.000 0.000
-0.000 -0.000 0.000
-0.000 -0.000 0.000
-0.000 -0.000 0.000
-0.000 -0.000 0.000
-0.000 -0.000 0.000
-1337.535 -1070.117 1641.000
-1333.086 -1070.117 1641.000
-1334.304 -1074.682 1648.000
-1335.484 -1079.247 1655.000
-1330.996 -1079.247 1655.000
-1326.509 -1079.247 1655.000
-1323.619 -1080.551 1657.000
-1317.534 -1079.247 1655.000
-1313.046 -1079.247 1655.000
-1306.187 -1077.290 1652.000
-1301.707 -1077.290 1652.000
-1297.228 -1077.290 1652.000
-1292.748 -1077.290 1652.000
-1288.269 -1077.290 1652.000
-1283.790 -1077.290 1652.000
-1279.310 -1077.290 1652.000
-1277.146 -1079.247 1655.000
-1272.658 -1079.247 1655.000
-1271.236 -1081.855 1659.000
-1266.738 -1081.855 1659.000
-1264.522 -1083.811 1662.000
-1266.839 -1089.680 1671.000
-1269.862 -1096.202 1681.000
-1265.304 -1096.202 1681.000
-1262.246 -1097.506 1683.000
-1256.188 -1096.202 1681.000
-1244.184 -1089.680 1671.000
-1235.944 -1086.420 1666.000
-1224.774 -1080.551 1657.000
-1215.126 -1075.986 1650.000
-1209.185 -1074.682 1648.000
-1204.716 -1074.682 1648.000
-1201.704 -1075.986 1650.000
-1198.682 -1077.290 1652.000
-1199.262 -1081.855 1659.000
-1194.764 -1081.855 1659.000
-1202.462 -1092.941 1676.000
-1206.495 -1100.766 1688.000
-1199.782 -1098.810 1685.000
-1197.341 -1100.766 1688.000
-1196.297 -1104.027 1693.000
-1191.706 -1104.027 1693.000
-1187.116 -1104.027 1693.000
-1182.525 -1104.027 1693.000
-1177.935 -1104.027 1693.000
-1174.730 -1105.331 1695.000
-1171.515 -1106.635 1697.000
-1168.977 -1108.592 1700.000
-1165.737 -1109.896 1702.000
-1163.169 -1111.852 1705.000
-1158.545 -1111.852 1705.000
-1153.922 -1111.852 1705.000
-1149.299 -1111.852 1705.000
-1142.662 -1109.896 1702.000
-1134.704 -1106.635 1697.000
-1127.439 -1104.027 1693.000
-1119.532 -1100.766 1688.000
-1116.276 -1102.071 1690.000
-1113.667 -1104.027 1693.000
-1105.801 -1100.766 1688.000
-1101.224 -1100.766 1688.000
-1102.494 -1106.635 1697.000
-1097.893 -1106.635 1697.000
-1087.493 -1100.766 1688.000
-1076.501 -1094.245 1678.000
-1087.283 -1109.896 1702.000
-1082.668 -1109.896 1702.000
-1078.053 -1109.896 1702.000
-1075.330 -1111.852 1705.000
-1071.963 -1113.156 1707.000
-1067.334 -1113.156 1707.000
-1061.461 -1111.852 1705.000
-1053.738 -1108.592 1700.000
-1046.043 -1105.331 1695.000
-1034.074 -1097.506 1683.000
-1028.287 -1096.202 1681.000
-1023.729 -1096.202 1681.000
-1026.447 -1104.027 1693.000
-1027.288 -1109.896 1702.000
-1034.691 -1122.938 1722.000
-1036.003 -1129.459 1732.000
-1034.284 -1132.720 1737.000
-1031.352 -1134.676 1740.000
-1026.634 -1134.676 1740.000
-1021.916 -1134.676 1740.000
-1017.198 -1134.676 1740.000
-1012.480 -1134.676 1740.000
-1007.762 -1134.676 1740.000
-1007.656 -1139.893 1748.000
-1002.916 -1139.893 1748.000
-999.319 -1141.197 1750.000
-994.574 -1141.197 1750.000
-989.829 -1141.197 1750.000
-985.083 -1141.197 1750.000
-980.338 -1141.197 1750.000
-975.593 -1141.197 1750.000
-970.848 -1141.197 1750.000
-966.103 -1141.197 1750.000
-961.358 -1141.197 1750.000
-958.253 -1143.154 1753.000
-954.587 -1144.458 1755.000
-951.452 -1146.414 1758.000
-945.070 -1144.458 1755.000
-941.919 -1146.414 1758.000
-937.152 -1146.414 1758.000
-935.037 -1149.675 1763.000
-930.257 -1149.675 1763.000
-925.476 -1149.675 1763.000
-920.696 -1149.675 1763.000
-918.513 -1152.935 1768.000
-917.854 -1158.152 1776.000
-917.151 -1163.369 1784.000
-917.939 -1170.542 1795.000
-914.598 -1172.499 1798.000
-909.723 -1172.499 1798.000
-902.331 -1169.238 1793.000
-895.968 -1167.282 1790.000
-891.114 -1167.282 1790.000
-886.261 -1167.282 1790.000
-882.884 -1169.238 1793.000
-881.940 -1174.455 1801.000
-877.057 -1174.455 1801.000
-873.142 -1175.759 1803.000
-869.698 -1177.716 1806.000
-864.801 -1177.716 1806.000
-859.904 -1177.716 1806.000
-855.007 -1177.716 1806.000
-854.346 -1183.585 1815.000
-853.169 -1188.802 1823.000
-848.226 -1188.802 1823.000
-855.310 -1205.757 1849.000
-850.297 -1205.757 1849.000
-845.283 -1205.757 1849.000
-849.358 -1218.799 1869.000
-851.067 -1228.580 1884.000
-847.305 -1230.537 1887.000
-843.528 -1232.493 1890.000
-835.741 -1228.580 1884.000
-822.697 -1216.842 1866.000
-811.065 -1207.061 1851.000
-801.255 -1199.888 1840.000
-794.968 -1197.931 1837.000
-782.676 -1186.845 1820.000
-771.759 -1177.716 1806.000
-766.862 -1177.716 1806.000
-763.231 -1179.672 1809.000
-764.194 -1188.802 1823.000
-759.251 -1188.802 1823.000
-755.550 -1190.758 1826.000
-757.586 -1201.844 1843.000
-751.364 -1199.888 1840.000
-750.026 -1205.757 1849.000
-751.862 -1216.842 1866.000
-752.806 -1226.624 1881.000
-747.705 -1226.624 1881.000
-743.789 -1228.580 1884.000
-737.505 -1226.624 1881.000
-732.404 -1226.624 1881.000
-727.304 -1226.624 1881.000
-725.659 -1232.493 1890.000
-721.678 -1234.449 1893.000
-717.681 -1236.406 1896.000
-713.667 -1238.362 1899.000
-709.638 -1240.318 1902.000
-707.814 -1246.188 1911.000
-703.735 -1248.144 1914.000
-702.195 -1254.665 1924.000
-696.978 -1254.665 1924.000
-692.840 -1256.621 1927.000
-687.615 -1256.621 1927.000
-681.328 -1254.665 1924.000
-676.111 -1254.665 1924.000
-672.986 -1258.578 1930.000
-668.791 -1260.534 1933.000
-666.982 -1267.055 1943.000
-661.714 -1267.055 1943.000
-655.094 -1264.447 1939.000
-649.836 -1264.447 1939.000
-644.579 -1264.447 1939.000
-638.332 -1262.490 1936.000
-634.063 -1264.447 1939.000
-630.103 -1267.055 1943.000
-626.764 -1270.968 1949.000
-625.625 -1279.445 1962.000
-624.415 -1287.923 1975.000
-622.194 -1294.444 1985.000
-617.744 -1296.400 1988.000
-615.434 -1302.921 1998.000
-610.016 -1302.921 1998.000
-605.809 -1305.530 2002.000
-601.281 -1307.486 2005.000
-595.844 -1307.486 2005.000
-591.585 -1310.095 2009.000
-586.138 -1310.095 2009.000
-581.558 -1312.051 2012.000
-578.107 -1316.616 2019.000
-573.483 -1318.572 2022.000
-567.158 -1316.616 2019.000
-561.683 -1316.616 2019.000
-556.209 -1316.616 2019.000
-548.006 -1310.095 2009.000
-541.479 -1307.486 2005.000
-537.112 -1310.095 2009.000
-531.664 -1310.095 2009.000
-526.217 -1310.095 2009.000
-520.769 -1310.095 2009.000
-516.092 -1312.051 2012.000
-510.636 -1312.051 2012.000
-505.181 -1312.051 2012.000
-498.980 -1310.095 2009.000
-493.533 -1310.095 2009.000
-486.385 -1305.530 2002.000
-478.554 -1299.009 1992.000
-473.152 -1299.009 1992.000
-467.751 -1299.009 1992.000
-463.046 -1300.965 1995.000
-459.931 -1307.486 2005.000
-456.081 -1312.051 2012.000
-452.865 -1318.572 2022.000
-448.267 -1321.181 2026.000
-442.774 -1321.181 2026.000
-437.928 -1323.137 2029.000
-433.279 -1325.745 2033.000
-427.767 -1325.745 2033.000
-425.162 -1334.875 2047.000
-422.481 -1344.004 2061.000
-419.118 -1351.178 2072.000
-414.298 -1353.786 2076.000
-409.260 -1355.742 2079.000
-403.040 -1353.786 2076.000
-395.305 -1346.613 2065.000
-387.630 -1339.440 2054.000
-382.061 -1339.440 2054.000
-379.790 -1351.178 2072.000
-374.895 -1353.786 2076.000
-370.511 -1358.351 2083.000
-364.863 -1358.351 2083.000
-360.422 -1362.916 2090.000
-355.434 -1365.524 2094.000
-349.756 -1365.524 2094.000
-344.078 -1365.524 2094.000
-338.400 -1365.524 2094.000
-330.339 -1355.742 2079.000
-324.702 -1355.742 2079.000
-319.065 -1355.742 2079.000
-313.427 -1355.742 2079.000
-307.346 -1353.786 2076.000
-300.554 -1348.569 2068.000
-291.952 -1334.875 2047.000
-285.422 -1330.310 2040.000
-279.891 -1330.310 2040.000
-277.184 -1344.004 2061.000
-272.122 -1346.613 2065.000
-270.266 -1365.524 2094.000
-268.379 -1385.088 2124.000
-263.114 -1387.696 2128.000
-259.158 -1397.478 2143.000
-253.820 -1400.086 2147.000
-247.999 -1400.086 2147.000
-242.628 -1402.695 2151.000
-236.796 -1402.695 2151.000
-230.963 -1402.695 2151.000
-225.550 -1405.303 2155.000
-220.522 -1410.520 2163.000
-214.657 -1410.520 2163.000
-209.178 -1413.128 2167.000
-203.678 -1415.737 2171.000
-197.791 -1415.737 2171.000
-191.904 -1415.737 2171.000
-186.018 -1415.737 2171.000
-180.795 -1420.954 2179.000
-175.529 -1426.171 2187.000
-169.289 -1423.562 2183.000
-163.968 -1428.779 2191.000
-158.027 -1428.779 2191.000
-152.086 -1428.779 2191.000
-146.145 -1428.779 2191.000
-140.205 -1428.779 2191.000
-134.264 -1428.779 2191.000
-128.323 -1428.779 2191.000
-122.159 -1426.171 2187.000
-116.441 -1428.779 2191.000
-110.500 -1428.779 2191.000
-104.750 -1431.388 2195.000
-98.979 -1433.996 2199.000
-93.185 -1436.604 2203.000
-87.370 -1439.213 2207.000
-81.533 -1441.821 2211.000
-75.538 -1441.821 2211.000
-69.543 -1441.821 2211.000
-63.663 -1444.430 2215.000
-57.657 -1444.430 2215.000
-51.768 -1447.690 2220.000
-45.996 -1455.516 2232.000
-40.105 -1461.385 2241.000
-34.286 -1472.471 2258.000
-28.650 -1497.903 2297.000
-22.734 -1518.771 2329.000
-16.518 -1527.900 2343.000
-10.165 -1527.900 2343.000
-3.812 -1527.900 2343.000
2.516 -1512.902 2320.000
8.773 -1507.033 2311.000
14.922 -1495.295 2293.000
21.056 -1489.426 2284.000
27.094 -1480.948 2271.000
33.120 -1475.079 2262.000
39.254 -1475.079 2262.000
45.467 -1477.688 2266.000
52.431 -1501.164 2302.000
59.005 -1509.641 2315.000
65.789 -1521.379 2333.000
72.548 -1530.509 2347.000
79.248 -1537.030 2357.000
85.784 -1539.638 2361.000
92.186 -1539.638 2361.000
98.588 -1539.638 2361.000
104.812 -1537.030 2357.000
110.542 -1527.900 2343.000
115.948 -1515.510 2324.000
121.565 -1507.033 2311.000
127.555 -1503.772 2306.000
133.808 -1503.772 2306.000
140.364 -1507.033 2311.000
147.455 -1515.510 2324.000
153.757 -1515.510 2324.000
161.022 -1524.640 2338.000
169.008 -1539.638 2361.000
174.370 -1530.509 2347.000
182.197 -1542.899 2366.000
190.127 -1555.289 2385.000
196.594 -1555.289 2385.000
203.061 -1555.289 2385.000
209.527 -1555.289 2385.000
215.542 -1552.028 2380.000
219.383 -1533.769 2352.000
223.937 -1521.379 2333.000
229.374 -1515.510 2324.000
235.676 -1515.510 2324.000
242.498 -1518.771 2329.000
249.240 -1521.379 2333.000
257.100 -1530.509 2347.000
265.597 -1542.899 2366.000
273.622 -1552.028 2380.000
281.840 -1561.810 2395.000
289.538 -1568.331 2405.000
296.675 -1571.592 2410.000
303.209 -1571.592 2410.000
309.744 -1571.592 2410.000
315.623 -1568.331 2405.000
322.144 -1568.331 2405.000
328.665 -1568.331 2405.000
335.186 -1568.331 2405.000
341.707 -1568.331 2405.000
348.228 -1568.331 2405.000
355.487 -1571.592 2410.000
361.270 -1568.331 2405.000
366.262 -1561.810 2395.000
372.756 -1561.810 2395.000
378.459 -1558.550 2390.000
384.939 -1558.550 2390.000
391.419 -1558.550 2390.000
398.732 -1561.810 2395.000
410.133 -1580.721 2424.000
417.565 -1583.982 2429.000
425.898 -1590.503 2439.000
434.284 -1597.024 2449.000
440.025 -1593.764 2444.000
446.651 -1593.764 2444.000
453.278 -1593.764 2444.000
458.964 -1590.503 2439.000
465.578 -1590.503 2439.000
471.223 -1587.243 2434.000
476.841 -1583.982 2429.000
482.432 -1580.721 2424.000
489.005 -1580.721 2424.000
495.577 -1580.721 2424.000
499.250 -1571.592 2410.000
505.785 -1571.592 2410.000
511.256 -1568.331 2405.000
517.777 -1568.331 2405.000
524.299 -1568.331 2405.000
530.820 -1568.331 2405.000
535.107 -1561.810 2395.000
540.470 -1558.550 2390.000
546.950 -1558.550 2390.000
554.589 -1561.810 2395.000
565.534 -1574.200 2414.000
573.264 -1577.461 2419.000
581.022 -1580.721 2424.000
588.807 -1583.982 2429.000
595.393 -1583.982 2429.000
601.979 -1583.982 2429.000
606.060 -1577.461 2419.000
612.619 -1577.461 2419.000
616.874 -1571.592 2410.000
622.116 -1568.331 2405.000
624.716 -1558.550 2390.000
628.555 -1552.028 2380.000
633.941 -1549.420 2376.000
640.384 -1549.420 2376.000
645.465 -1546.159 2371.000
651.894 -1546.159 2371.000
658.323 -1546.159 2371.000
663.350 -1542.899 2366.000
669.766 -1542.899 2366.000
674.752 -1539.638 2361.000
678.557 -1533.769 2352.000
675.616 -1512.902 2320.000
676.616 -1501.164 2302.000
680.188 -1495.295 2293.000
684.909 -1492.034 2288.000
691.113 -1492.034 2288.000
697.316 -1492.034 2288.000
703.520 -1492.034 2288.000
711.275 -1495.295 2293.000
715.928 -1492.034 2288.000
718.029 -1483.557 2275.000
720.059 -1475.079 2262.000
722.019 -1466.602 2249.000
721.319 -1452.907 2228.000
723.116 -1444.430 2215.000
723.855 -1433.996 2199.000
725.835 -1426.171 2187.000
729.088 -1420.954 2179.000
734.996 -1420.954 2179.000
740.905 -1420.954 2179.000
746.813 -1420.954 2179.000
752.721 -1420.954 2179.000
758.630 -1420.954 2179.000
764.538 -1420.954 2179.000
771.861 -1423.562 2183.000
776.355 -1420.954 2179.000
779.391 -1415.737 2171.000
780.937 -1407.911 2159.000
775.494 -1387.696 2128.000
779.796 -1385.088 2124.000
778.528 -1372.697 2105.000
778.647 -1362.916 2090.000
783.188 -1360.959 2087.000
784.689 -1353.786 2076.000
788.796 -1351.178 2072.000
791.730 -1346.613 2065.000
791.537 -1336.831 2050.000
795.930 -1334.875 2047.000
801.480 -1334.875 2047.000
807.030 -1334.875 2047.000
812.581 -1334.875 2047.000
818.131 -1334.875 2047.000
815.232 -1321.181 2026.000
815.054 -1312.051 2012.000
819.286 -1310.095 2009.000
821.859 -1305.530 2002.000
825.635 -1302.921 1998.000
829.805 -1300.965 1995.000
828.097 -1289.879 1978.000
829.668 -1284.010 1969.000
832.038 -1279.445 1962.000
834.371 -1274.880 1955.000
838.383 -1272.924 1952.000
843.676 -1272.924 1952.000
848.969 -1272.924 1952.000
854.262 -1272.924 1952.000
859.555 -1272.924 1952.000
863.518 -1270.968 1949.000
866.128 -1267.055 1943.000
871.397 -1267.055 1943.000
876.665 -1267.055 1943.000
880.118 -1264.447 1939.000
884.006 -1262.490 1936.000
887.877 -1260.534 1933.000
891.732 -1258.578 1930.000
895.571 -1256.621 1927.000
896.122 -1250.100 1917.000
897.088 -1244.231 1908.000
893.750 -1232.493 1890.000
896.021 -1228.580 1884.000
896.825 -1222.711 1875.000
899.022 -1218.799 1869.000
898.285 -1210.973 1857.000
895.051 -1199.888 1840.000
893.192 -1190.758 1826.000
898.143 -1190.758 1826.000
903.095 -1190.758 1826.000
924.953 -1212.930 1860.000
931.497 -1214.886 1863.000
936.548 -1214.886 1863.000
944.632 -1218.799 1869.000
943.603 -1210.973 1857.000
947.105 -1209.017 1854.000
952.132 -1209.017 1854.000
957.159 -1209.017 1854.000
947.655 -1190.758 1826.000
935.391 -1169.238 1793.000
0.000 -0.000 0.000
0.000 -0.000 0.000
0.000 -0.000 0.000
0.000 -0.000 0.000
0.000 -0.000 0.000
0.000 -0.000 0.000
0.000 -0.000 0.000
0.000 -0.000 0.000
0.000 -0.000 0.000
538.378 -639.723 981.000
544.898 -644.287 988.000
549.794 -646.896 992.000
553.598 -648.200 994.000
557.412 -649.504 996.000
564.050 -654.069 1003.000
571.290 -659.286 1011.000
581.412 -667.763 1024.000
591.035 -675.589 1036.000
594.990 -676.893 1038.000
598.381 -677.545 1039.000
601.198 -677.545 1039.000
602.853 -676.241 1037.000
603.912 -674.285 1034.000
600.848 -667.763 1024.000
601.267 -665.155 1020.000
602.256 -663.199 1017.000
605.014 -663.199 1017.000
608.369 -663.851 1018.000
612.330 -665.155 1020.000
617.508 -667.763 1024.000
623.919 -671.676 1030.000
629.754 -674.937 1035.000
638.061 -680.806 1044.000
643.961 -684.066 1049.000
650.505 -687.979 1055.000
655.843 -690.587 1059.000
661.824 -693.848 1064.000
667.833 -697.109 1069.000
671.986 -698.413 1071.000
681.822 -705.586 1082.000
691.084 -712.107 1092.000
700.401 -718.628 1102.000
705.304 -720.585 1105.000
711.505 -723.845 1110.000
715.802 -725.149 1112.000
720.757 -727.106 1115.000
724.429 -727.758 1116.000
728.759 -729.062 1118.000
733.754 -731.018 1121.000
736.794 -731.018 1121.000
739.833 -731.018 1121.000
740.885 -729.062 1118.000
743.916 -729.062 1118.000
746.948 -729.062 1118.000
750.650 -729.714 1119.000
755.031 -731.018 1121.000
758.747 -731.671 1122.000
761.789 -731.671 1122.000
767.558 -734.279 1126.000
771.980 -735.583 1128.000
775.039 -735.583 1128.000
779.477 -736.887 1130.000
784.618 -738.844 1133.000
791.167 -742.104 1138.000
792.158 -740.148 1135.000
799.440 -744.061 1141.000
807.457 -748.625 1148.000
811.982 -749.930 1150.000
824.314 -758.407 1163.000
831.025 -761.668 1168.000
834.192 -761.668 1168.000
838.793 -762.972 1170.000
841.966 -762.972 1170.000
845.138 -762.972 1170.000
846.860 -761.668 1168.000
849.300 -761.016 1167.000
852.464 -761.016 1167.000
856.362 -761.668 1168.000
861.736 -763.624 1171.000
866.389 -764.928 1173.000
871.052 -766.233 1175.000
874.238 -766.233 1175.000
877.424 -766.233 1175.000
877.612 -763.624 1171.000
879.283 -762.320 1169.000
880.943 -761.016 1167.000
880.319 -757.755 1162.000
878.148 -753.190 1155.000
869.071 -742.756 1139.000
0.000 -0.000 0.000
0.000 -0.000 0.000
0.000 -0.000 0.000
0.000 -0.000 0.000
0.000 -0.000 0.000
0.000 -0.000 0.000
0.000 -0.000 0.000
0.000 -0.000 0.000
737.021 -610.378 936.000
741.140 -611.682 938.000
742.097 -610.378 936.000
741.453 -607.769 932.000
737.594 -602.552 924.000
128.957 -104.990 161.000
0.000 -0.000 0.000
